-15.648,4.4242,4.100848
-16.079,4.5742,4.14072
-16.972,4.8837,4.14072
-17.402,5.0496,4.110816
-17.887,5.2387,4.100848
-18.317,5.419,4.09088
-19.174,5.6832,4.14072
-19.584,5.8179,4.130752
-20.015,5.9521,4.180592
-20.909,6.2673,4.120784
-21.391,6.3846,4.160656
-21.821,6.5188,4.150688
-22.232,6.6693,4.170624
-22.979,6.9979,4.150688
-23.406,7.1164,4.170624
-23.837,7.2664,4.19056
-24.247,7.4011,4.170624
-25.124,7.7109,4.160656
-25.534,7.8614,4.200528
-25.925,8.0225,4.170624
-26.186,8.0468,4.180592
-27.083,8.4138,4.170624
-27.53,8.6038,4.230432
-27.867,8.7142,4.170624
-28.334,8.9051,4.180592
-29.04,9.1209,4.14072
-29.263,9.126,4.14072
-29.673,9.2765,4.200528
-30.084,9.427,4.170624
-30.909,9.7524,4.150688
-31.279,9.888,4.180592
-31.635,9.9937,4.180592
-32.026,10.1288,4.210496
-33.15,10.7367,4.14072
-33.579,10.9329,4.150688
-33.99,11.1093,4.170624
-34.421,11.2853,4.150688
-35.074,11.5167,4.120784
-35.485,11.6772,4.180592
-35.897,11.8738,4.170624
-36.273,12.051,4.180592
-37,12.38,4.150688
-37.356,12.5562,4.2404
-37.709,12.708,4.19056
-38.047,12.8602,4.250368
-38.778,13.2611,4.230432
-39.133,13.4848,4.19056
-39.471,13.6312,4.260336
-39.828,13.8391,4.280272
-40.502,14.2571,4.270304
-40.86,14.4951,4.310176
-41.217,14.7188,4.250368
-41.592,14.922,4.260336
-42.268,15.3702,4.260336
-42.607,15.6044,4.220464
-42.927,15.8447,4.200528
-43.246,16.0692,4.180592
-43.904,16.5279,4.170624
-44.241,16.7665,4.180592
-44.543,16.9295,4.160656
-45.219,17.3878,4.170624
-45.558,17.6277,4.120784
-45.894,17.8519,4.14072
-46.269,18.0435,4.170624
-46.963,18.4755,4.120784
-47.303,18.6952,4.09088
-47.643,18.9035,4.080912
-47.977,19.1118,4.100848
-48.673,19.5294,4.09088
-49.011,19.7377,4.070944
-49.367,19.9297,4.09088
-49.721,20.1376,4.100848
-50.415,20.5235,4.100848
-50.771,20.717,4.060976
-51.129,20.9248,4.060976
-51.465,21.1231,4.060976
-52.178,21.4928,4.021104
-52.532,21.6705,4.060976
-52.888,21.8524,4.060976
-53.227,22.0305,4.060976
-53.956,22.4156,4.011136
-54.311,22.5976,4.001168
-54.651,22.7914,4.031072
-55.005,22.9835,4.070944
-55.719,23.369,4.060976
-56.074,23.5524,4.011136
-56.428,23.7143,4.021104
-56.802,23.88,4.09088
-57.481,24.3123,4.011136
-57.835,24.49,3.971264
-58.191,24.6518,3.971264
-58.544,24.8195,4.001168
-59.257,25.179,3.961296
-59.592,25.3255,4.04104
-59.95,25.5233,3.9912
-60.306,25.7009,3.971264
-61.035,26.0299,3.961296
-61.388,26.1961,3.961296
-61.762,26.3575,4.011136
-62.118,26.5352,3.94136
-62.866,26.894,3.951328
-63.315,27.1156,3.921424
-63.689,27.277,3.931392
-64.401,27.5646,3.901488
-64.757,27.7466,3.89152
-65.13,27.8936,3.911456
-65.504,28.0594,3.89152
-66.269,28.3458,3.89152
-66.659,28.491,3.89152
-67.091,28.6828,3.871584
-67.464,28.8183,3.871584
-68.247,29.0626,3.871584
-68.637,29.1834,3.84168
-69.03,29.2882,3.851648
-69.44,29.4229,3.84168
-70.221,29.6054,3.831712
-70.612,29.7002,3.79184
-70.963,29.7484,3.801808
-71.354,29.7957,3.781872
-72.133,29.8659,3.751968
-72.502,29.8735,3.742
-72.893,29.8949,3.742
-73.263,29.9124,3.722064
-74.001,29.8555,3.742
-74.37,29.8155,3.69216
-74.724,29.7514,3.672224
-75.035,29.6868,3.662256
-75.718,29.5131,3.632352
-76.045,29.4179,3.612416
-76.394,29.3121,3.612416
-76.689,29.1759,3.612416
-77.312,28.8999,3.602448
-77.622,28.7648,3.582512
-77.933,28.6124,3.552608
-78.227,28.4475,3.502768
-78.793,28.0893,3.512736
-79.066,27.8974,3.512736
-79.34,27.7013,3.462896
-79.594,27.5099,3.472864
-80.069,27.1235,3.462896
-80.284,26.8927,3.472864
-80.501,26.6719,3.432992
-80.734,26.4349,3.4928
-81.151,25.9361,3.403088
-81.348,25.674,3.413056
-81.546,25.4076,3.413056
-81.705,25.1464,3.383152
-82.027,24.5777,3.363216
-82.168,24.2867,3.313376
-82.312,24.01,3.34328
-82.433,23.7194,3.363216
-82.642,23.1231,3.34328
-82.743,22.7595,3.413056
-82.812,22.4701,3.313376
-82.898,22.1846,3.34328
-83.087,21.5888,3.323344
-83.156,21.2993,3.323344
-83.186,20.9791,3.283472
-83.209,20.377,3.34328
-83.276,20.1581,3.323344
-83.31,19.8536,3.34328
-83.283,19.5563,3.333312
-83.269,18.9492,3.353248
-83.241,18.5742,3.353248
-83.234,18.2908,3.333312
-83.247,17.9724,3.333312
-83.176,17.3551,3.323344
-83.096,17.0229,3.353248
-83.052,16.6943,3.34328
-83.006,16.3816,3.353248
-82.844,15.69,3.34328
-82.761,15.3781,3.373184
-82.737,15.0188,3.373184
-82.674,14.6906,3.383152
-82.492,13.9995,3.423024
-82.407,13.6301,3.373184
-82.343,13.2415,3.39312
-82.242,12.8825,3.44296
-81.965,12.0856,3.432992
-81.865,11.728,3.432992
-81.708,11.34,3.502768
-81.611,10.9824,3.432992
-81.39,10.272,3.432992
-81.269,9.9149,3.472864
-81.131,9.5725,3.502768
-80.994,9.2302,3.522704
-80.738,8.5307,3.452928
-80.6,8.174,3.482832
-80.483,7.8168,3.512736
-80.327,7.4748,3.512736
-80.052,6.7599,3.552608
-79.896,6.4036,3.59248
-79.738,6.0617,3.582512
-79.658,5.7037,3.64232
-79.344,5.0055,3.622384
-79.19,4.6333,3.622384
-79.054,4.2765,3.652288
-78.896,3.9188,3.652288
-78.582,3.2105,3.652288
-78.429,2.8383,3.682192
-78.271,2.4662,3.69216
-78.094,2.1103,3.732032
-77.802,1.3699,3.761936
-77.646,1.0136,3.742
-77.49,0.6573,3.801808
-77.12,-0.1275,3.771904
-76.983,-0.454,3.811776
-76.827,-0.8103,3.821744
-76.652,-1.1935,3.821744
-76.302,-1.9514,3.801808
-76.127,-2.3188,3.79184
-75.95,-2.7063,3.821744
-75.834,-3.0074,3.851648
-75.503,-3.7052,3.851648
-75.309,-4.1024,3.871584
-75.153,-4.4587,3.871584
-74.995,-4.815,3.84168
-74.591,-5.609,3.921424
-74.47,-5.9417,3.89152
-74.318,-6.2981,3.921424
-74.16,-6.6659,3.871584
-73.807,-7.4496,3.931392
-73.69,-7.7765,3.811776
-73.534,-8.1645,3.79184
-73.396,-8.5212,3.801808
-73.102,-9.2458,3.801808
-72.946,-9.6021,3.811776
-72.829,-9.9607,3.811776
-72.687,-10.3174,3.79184
-72.397,-11.0478,3.801808
-72.201,-11.4291,3.821744
-72.062,-11.7858,3.801808
-71.945,-12.1286,3.801808
-71.687,-12.8123,3.771904
-71.57,-13.1853,3.761936
-71.469,-13.5587,3.751968
-71.368,-13.9277,3.761936
-71.147,-14.6165,3.781872
-71.046,-14.9755,3.712096
-70.945,-15.3432,3.732032
-70.882,-15.703,3.702128
-70.794,-16.4063,3.682192
-70.749,-16.7651,3.702128
-70.704,-17.1081,3.712096
-70.734,-17.4125,3.682192
-70.718,-18.1031,3.662256
-70.731,-18.4473,3.652288
-70.758,-18.7934,3.662256
-70.804,-19.1442,3.672224
-70.844,-19.8202,3.632352
-70.894,-20.1495,3.59248
-70.959,-20.4863,3.612416
-71.066,-20.7607,3.602448
-71.026,-21.6206,3.552608
-71.153,-21.9012,3.582512
-71.329,-22.1312,3.552608
-71.5,-22.7683,3.522704
-71.606,-23.0744,3.522704
-71.748,-23.3353,3.572544
-71.888,-23.6162,3.512736
-72.19,-24.1527,3.502768
-72.315,-24.4593,3.562576
-72.497,-24.6807,3.472864
-72.655,-24.9721,3.44296
-72.98,-25.3969,3.44296
-73.213,-25.572,3.482832
-73.375,-25.8477,3.44296
-73.61,-26.0286,3.423024
-73.99,-26.4949,3.423024
-74.224,-26.6901,3.44296
-74.404,-26.9216,3.403088
-74.622,-27.1007,3.39312
-75.115,-27.3997,3.413056
-75.352,-27.5648,3.403088
-75.591,-27.7256,3.423024
-75.845,-27.8652,3.39312
-76.302,-28.1893,3.423024
-76.54,-28.3228,3.423024
-76.776,-28.4461,3.39312
-77.051,-28.5358,3.39312
-77.436,-28.7906,3.39312
-77.694,-28.854,3.39312
-77.969,-28.9466,3.423024
-78.226,-28.9682,3.432992
-78.781,-29.0686,3.39312
-79.02,-29.1301,3.423024
-79.299,-29.1364,3.482832
-79.557,-29.112,3.423024
-80.074,-29.0819,3.432992
-80.257,-29.1839,3.4928
-80.442,-29.2039,3.413056
-80.779,-29.0834,3.44296
-81.261,-28.9906,3.482832
-81.579,-28.8539,3.482832
-81.918,-28.6758,3.4928
-82.124,-28.6503,3.4928
-82.645,-28.3626,3.572544
-82.948,-28.1377,3.552608
-83.231,-27.9599,3.532672
-83.398,-27.86,3.54264
-83.907,-27.4699,3.512736
-84.112,-27.3148,3.59248
-84.338,-27.1198,3.59248
-84.832,-26.6574,3.59248
-85.022,-26.4458,3.632352
-85.155,-26.2732,3.59248
-85.346,-26.0357,3.64232
-85.764,-25.5399,3.632352
-85.972,-25.2725,3.602448
-86.145,-25.0447,3.632352
-86.374,-24.762,3.64232
-86.832,-24.1534,3.662256
-87.041,-23.8861,3.702128
-87.234,-23.6127,3.64232
-87.478,-23.3346,3.69216
-87.897,-22.8086,3.682192
-88.125,-22.5259,3.761936
-88.337,-22.2428,3.742
-88.585,-21.9749,3.702128
-88.853,-21.5232,3.702128
-89.101,-21.2511,3.64232
-89.365,-20.9576,3.64232
-89.613,-20.7013,3.64232
-90.14,-20.1676,3.612416
-90.405,-19.916,3.64232
-90.671,-19.6902,3.69216
-90.954,-19.439,3.582512
-91.573,-18.9895,3.602448
-91.858,-18.7699,3.602448
-92.16,-18.5608,3.59248
-92.459,-18.3617,3.602448
-93.116,-17.9491,3.59248
-93.415,-17.7658,3.622384
-93.717,-17.5869,3.54264
-94.035,-17.4085,3.552608
-94.692,-17.0735,3.522704
-95.009,-16.895,3.532672
-95.327,-16.7424,3.4928
-95.662,-16.606,3.512736
-96.261,-16.2899,3.512736
-96.619,-16.1541,3.482832
-96.951,-16.0478,3.472864
-97.289,-15.9273,3.482832
-97.979,-15.6953,3.452928
-98.463,-15.5062,3.452928
-98.799,-15.426,3.353248
-99.172,-15.3207,3.353248
-99.86,-15.1779,3.452928
-100.214,-15.0822,3.283472
-100.567,-15.0081,3.283472
-100.939,-14.9445,3.263536
-101.663,-14.8429,3.2436
-102.106,-14.8111,3.263536
-102.477,-14.7633,3.2436
-103.221,-14.6765,3.203728
-103.536,-14.6836,3.203728
-103.906,-14.6617,3.203728
-104.294,-14.6287,3.163856
-105.016,-14.6033,3.133952
-105.407,-14.6121,3.123984
-105.776,-14.6204,3.074144
-106.165,-14.6148,3.034272
-106.886,-14.6714,3.04424
-107.276,-14.696,2.974464
-107.681,-14.6893,2.884752
-108.069,-14.7297,2.854848
-108.901,-14.7485,2.79504
-109.231,-14.8437,2.7452
-109.47,-14.993,2.715296
-109.779,-15.154,2.615616
-110.44,-15.3848,2.605648
-110.772,-15.5262,2.555808
-111.081,-15.6728,2.525904
-111.413,-15.7983,2.575744
-112.054,-16.1165,2.466096
-112.365,-16.2674,2.426224
-112.676,-16.4284,2.39632
-112.966,-16.6264,2.426224
-113.549,-17.0095,2.416256
-113.843,-17.2176,2.476064
-114.077,-17.4287,2.466096
-114.349,-17.6508,2.486032
-114.822,-18.135,2.54584
-115.038,-18.3817,2.585712
-115.254,-18.6341,2.565776
-115.471,-18.8952,2.675424
-115.829,-19.4387,2.675424
-115.987,-19.7316,2.655488
-116.147,-19.9914,2.655488
-116.289,-20.2681,2.775104
-116.519,-20.8188,2.765136
-116.567,-21.1553,2.834912
-116.67,-21.4455,2.874784
-116.777,-21.7055,2.854848
-116.856,-22.3089,2.924624
-116.922,-22.5839,2.9944
-116.935,-22.8879,2.9944
-116.966,-23.1765,2.974464
-116.932,-23.7673,3.004368
-116.909,-24.0662,3.084112
-116.882,-24.3534,3.014336
-116.84,-24.6303,3.054208
-116.661,-25.1876,3.084112
-116.58,-25.4434,3.14392
-116.481,-25.729,3.133952
-116.382,-25.9845,3.213696
-116.186,-26.468,3.14392
-116.034,-26.738,3.183792
-115.917,-26.9974,3.183792
-115.61,-27.4798,3.273504
-115.474,-27.6926,3.253568
-115.303,-27.9061,3.213696
-115.133,-28.1283,3.2436
-114.732,-28.5971,3.253568
-114.541,-28.836,3.333312
-114.335,-29.0315,3.353248
-114.108,-29.2322,3.313376
-113.655,-29.6394,3.313376
-113.41,-29.8598,3.353248
-113.163,-30.0558,3.363216
-112.921,-30.2662,3.383152
-112.429,-30.661,3.39312
-112.166,-30.8566,3.413056
-111.939,-31.0515,3.39312
-111.694,-31.2619,3.44296
-111.164,-31.6832,3.413056
-110.902,-31.8774,3.44296
-110.655,-32.1193,3.522704
-110.393,-32.315,3.532672
-109.846,-32.7762,3.572544
-109.713,-32.9013,3.4928
-109.524,-33.0827,3.502768
-109.26,-33.3228,3.452928
-108.767,-33.7594,3.462896
-108.56,-33.9721,3.562576
-108.256,-34.2372,3.423024
-108.124,-34.4501,3.423024
-107.631,-34.9443,3.472864
-107.364,-35.2218,3.452928
-107.08,-35.5191,3.482832
-106.721,-35.8449,3.462896
-105.965,-36.559,3.472864
-105.736,-36.8417,3.44296
-105.528,-37.1105,3.44296
-105.206,-37.4631,3.423024
-104.766,-38.0145,3.413056
-104.519,-38.2968,3.413056
-104.273,-38.595,3.383152
-104.026,-38.8888,3.373184
-103.568,-39.4859,3.253568
-103.339,-39.7945,3.383152
-103.127,-40.0934,3.353248
-102.651,-40.6901,3.323344
-102.423,-40.9728,3.323344
-102.214,-41.266,3.323344
-102.002,-41.5808,3.233632
-101.565,-42.1481,3.2436
-101.241,-42.5726,3.2436
-101.104,-42.7955,3.223664
-100.837,-43.181,3.273504
-100.36,-43.8035,3.19376
-100.151,-44.1126,3.153888
-99.922,-44.427,3.123984
-99.73,-44.7264,3.14392
-99.349,-45.1913,3.114016
-99.137,-45.5003,3.09408
-98.945,-45.7997,3.054208
-98.772,-46.0995,3.014336
-98.502,-46.6706,3.054208
-98.347,-46.9549,2.9944
-98.211,-47.2656,2.964496
-98.091,-47.5666,2.94456
-97.838,-48.1784,2.914656
-97.776,-48.4966,2.904688
-97.712,-48.7787,2.884752
-97.633,-49.095,2.84488
-97.47,-49.7563,2.805008
-97.444,-49.9975,2.805008
-97.4,-50.3002,2.785072
-97.415,-50.5582,2.785072
-97.401,-51.1495,2.7452
-97.411,-51.4376,2.705328
-97.444,-51.696,2.705328
-97.381,-52.0544,2.705328
-97.345,-52.7444,2.705328
-97.376,-53.0172,2.655488
-97.579,-53.1254,2.665456
-97.607,-53.4297,2.64552
-97.801,-53.9221,2.715296
-97.889,-54.1515,2.605648
-97.884,-54.3572,2.605648
-98.008,-54.6018,2.585712
-98.237,-55.0546,2.625584
-98.363,-55.2733,2.615616
-98.546,-55.4329,2.555808
-98.634,-55.6508,2.555808
-98.994,-55.9626,2.565776
-99.158,-56.1563,2.535872
-99.357,-56.2745,2.525904
-99.538,-56.4384,2.515936
-99.998,-56.633,2.515936
-100.198,-56.7253,2.525904
-100.419,-56.8282,2.456128
-100.839,-57.0276,2.436192
-101.059,-57.1046,2.44616
-101.263,-57.1826,2.466096
-101.484,-57.2279,2.436192
-101.962,-57.2703,2.456128
-102.223,-57.2863,2.466096
-102.462,-57.2816,2.456128
-102.705,-57.2554,2.476064
-103.168,-57.2356,2.496
-103.446,-57.216,2.525904
-103.686,-57.1638,2.525904
-103.948,-57.0978,2.535872
-104.466,-57.0375,2.54584
-104.71,-56.9567,2.555808
-104.97,-56.8589,2.585712
-105.214,-56.7823,2.635552
-105.719,-56.562,2.675424
-105.979,-56.4383,2.665456
-106.224,-56.3158,2.665456
-106.468,-56.1773,2.705328
-106.956,-55.8688,2.735232
-107.2,-55.7001,2.7452
-107.447,-55.52,2.84488
-107.725,-55.3248,2.924624
-108.312,-54.8343,2.94456
-108.576,-54.6085,2.964496
-108.859,-54.3731,3.014336
-109.122,-54.1314,2.934592
-109.652,-53.6857,3.004368
-109.972,-53.4309,2.974464
-110.218,-53.209,3.024304
-110.482,-52.9689,3.024304
-110.972,-52.5208,3.074144
-111.238,-52.295,3.074144
-111.482,-52.0443,3.054208
-111.749,-51.787,3.074144
-112.221,-51.2938,3.09408
-112.452,-51.0414,3.104048
-112.695,-50.8051,3.114016
-112.922,-50.5626,3.163856
-113.417,-50.0441,3.173824
-113.645,-49.7858,3.14392
-113.779,-49.5629,3.183792
-114.042,-49.3069,3.19376
-114.554,-48.7873,3.2436
-114.803,-48.505,3.203728
-115.05,-48.1911,3.223664
-115.279,-47.9084,3.263536
-115.77,-47.3739,3.303408
-116.036,-47.0762,3.29344
-116.32,-46.7832,3.273504
-116.587,-46.5172,3.313376
-117.116,-45.9678,3.29344
-117.385,-45.7119,3.323344
-117.648,-45.4285,3.303408
-118.161,-44.8644,3.29344
-118.426,-44.5825,3.303408
-118.728,-44.3158,3.34328
-118.993,-44.0498,3.323344
-119.542,-43.531,3.313376
-119.804,-43.3052,3.333312
-120.071,-43.0536,3.333312
-120.375,-42.7164,3.313376
-120.904,-42.2231,3.363216
-121.204,-41.9838,3.34328
-121.488,-41.7484,3.373184
-121.772,-41.4914,3.39312
-122.318,-40.9898,3.323344
-122.603,-40.7329,3.29344
-122.886,-40.4816,3.373184
-123.17,-40.2318,3.283472
-123.753,-39.7095,3.263536
-124.023,-39.4119,3.283472
-124.323,-39.1452,3.263536
-124.607,-38.8537,3.273504
-125.175,-38.2893,3.233632
-125.461,-38.0079,3.2436
-125.708,-37.7256,3.253568
-125.992,-37.4427,3.223664
-126.542,-36.8793,3.203728
-126.826,-36.582,3.183792
-127.108,-36.289,3.19376
-127.392,-36.0075,3.14392
-127.961,-35.4288,3.133952
-128.247,-35.1315,3.09408
-128.53,-34.8644,3.09408
-128.814,-34.583,3.09408
-129.382,-34.0244,3.04424
-129.703,-33.7696,3.004368
-129.985,-33.5342,3.034272
-130.287,-33.2776,3.024304
-130.925,-32.8184,2.974464
-131.189,-32.6085,2.954528
-131.527,-32.4002,2.954528
-131.867,-32.1761,2.94456
-132.521,-31.8052,2.924624
-132.895,-31.638,2.89472
-133.234,-31.4441,2.874784
-133.571,-31.2819,2.854848
-134.263,-30.9535,2.904688
-134.582,-30.7707,2.89472
-134.956,-30.6193,2.814976
-135.665,-30.3518,2.824944
-136.038,-30.2163,2.79504
-136.411,-30.0808,2.775104
-136.766,-29.9549,2.7452
-137.491,-29.7438,2.69536
-137.865,-29.6501,2.705328
-138.254,-29.561,2.64552
-138.609,-29.4812,2.625584
-139.35,-29.354,2.615616
-139.722,-29.2904,2.575744
-140,-29.265,2.585712
-140.373,-29.2173,2.525904
-141.096,-29.1616,2.525904
-141.466,-29.1541,2.496
-141.91,-29.0821,2.476064
-142.262,-29.09,2.476064
-142.966,-29.1477,2.476064
-143.314,-29.1958,2.44616
-143.665,-29.2498,2.406288
-144.018,-29.2836,2.39632
-144.699,-29.4185,2.44616
-145.029,-29.508,2.386352
-145.361,-29.6033,2.376384
-145.747,-29.6681,2.386352
-146.39,-29.8884,2.376384
-146.722,-29.9938,2.426224
-147.034,-30.1146,2.34648
-147.362,-30.2558,2.366416
-147.93,-30.5824,2.366416
-148.205,-30.7325,2.34648
-148.495,-30.8989,2.326544
-148.789,-31.0753,2.336512
-149.318,-31.4212,2.356448
-149.608,-31.6134,2.34648
-149.882,-31.7952,2.316576
-150.155,-31.9856,2.34648
-150.834,-32.3205,2.316576
-151.107,-32.5123,2.29664
-151.38,-32.7185,2.326544
-151.653,-32.942,2.326544
-152.104,-33.384,2.316576
-152.376,-33.6061,2.326544
-152.649,-33.8281,2.336512
-152.921,-34.0516,2.326544
-153.375,-34.5196,2.34648
-153.648,-34.7575,2.316576
-153.92,-34.9953,2.336512
-154.462,-35.4811,2.306608
-154.718,-35.7186,2.286672
-155.005,-36.0547,2.286672
-155.277,-36.2912,2.2468
-155.785,-36.8179,2.226864
-156.039,-37.0712,2.216896
-156.31,-37.335,2.226864
-156.582,-37.5872,2.206928
-157.162,-38.1156,2.177024
-157.413,-38.3991,2.167056
-157.666,-38.6624,2.157088
-157.938,-38.9406,2.14712
-158.425,-39.4971,2.09728
-158.661,-39.7759,2.107248
-158.912,-40.0594,2.107248
-159.165,-40.3386,2.077344
-159.635,-40.9206,2.067376
-159.869,-41.2037,2.057408
-160.101,-41.5069,2.037472
-160.337,-41.8,2.007568
-160.785,-42.4176,2.037472
-161.001,-42.7218,2.017536
-161.234,-43.0308,1.987632
-161.429,-43.3547,2.007568
-161.842,-43.9815,1.977664
-162.02,-44.2993,2.007568
-162.159,-44.622,1.987632
-162.337,-44.9398,1.9976
-162.675,-45.611,1.94776
-162.834,-45.9442,1.977664
-163.029,-46.2523,2.007568
-163.169,-46.6009,1.957728
-163.413,-47.27,1.94776
-163.516,-47.6177,1.937792
-163.622,-47.9483,1.967696
-163.688,-48.2952,1.967696
-163.837,-48.978,1.967696
-163.906,-49.3091,1.987632
-163.952,-49.6556,2.017536
-164,-49.9906,2.017536
-164.077,-50.6674,1.9976
-164.09,-51.0117,2.007568
-164.099,-51.3416,2.027504
-164.111,-51.6873,2.027504
-164.131,-52.3513,2.067376
-164.124,-52.6966,2.067376
-164.099,-53.04,2.087312
-164.073,-53.3748,2.09728
-164.001,-54.0468,2.127184
-163.938,-54.375,2.157088
-163.893,-54.7194,2.186992
-163.813,-55.0516,2.177024
-163.668,-55.7536,2.2468
-163.568,-56.0651,2.206928
-163.469,-56.3824,2.2468
-163.232,-57.0262,2.256768
-163.112,-57.3373,2.266736
-162.978,-57.638,2.326544
-162.821,-57.9381,2.336512
-162.53,-58.5332,2.436192
-162.377,-58.8335,2.406288
-162.222,-59.1179,2.386352
-162.049,-59.4134,2.406288
-161.703,-60.013,2.525904
-161.53,-60.2969,2.456128
-161.338,-60.5805,2.486032
-161.164,-60.85,2.505968
-160.727,-61.4159,2.525904
-160.535,-61.7009,2.535872
-160.324,-61.984,2.555808
-160.116,-62.2528,2.64552
-159.697,-62.7889,2.615616
-159.485,-63.0719,2.625584
-159.257,-63.3388,2.64552
-159.048,-63.6235,2.69536
-158.627,-64.1897,2.715296
-158.453,-64.4996,2.705328
-158.206,-64.7833,2.705328
-157.998,-65.0506,2.725264
-157.558,-65.6323,2.79504
-157.329,-65.9308,2.84488
-157.1,-66.2409,2.94456
-156.873,-66.5395,2.934592
-156.432,-67.1211,3.034272
-156.203,-67.4139,3.054208
-156.032,-67.7137,3.084112
-155.819,-68.0285,3.074144
-155.419,-68.6527,3.104048
-155.206,-68.9617,3.014336
-155.016,-69.277,3.084112
-154.805,-69.586,3.004368
-154.419,-70.2264,2.984432
-154.246,-70.5666,2.9944
-154.054,-70.8918,2.914656
-153.861,-71.2329,2.924624
-153.474,-71.9036,2.914656
-153.302,-72.2293,2.94456
-153.126,-72.5593,2.974464
-152.951,-72.9267,2.914656
-152.642,-73.6092,2.854848
-152.465,-73.955,2.914656
-152.311,-74.2969,2.834912
-151.944,-74.932,2.904688
-151.79,-75.2783,2.824944
-151.634,-75.6188,2.854848
-151.459,-75.9862,2.805008
-151.145,-76.7003,2.79504
-150.989,-77.0566,2.884752
-150.835,-77.3985,2.715296
-150.658,-77.7702,2.655488
-150.385,-78.4837,2.635552
-150.247,-78.8419,2.605648
-150.109,-79.1987,2.555808
-149.97,-79.5654,2.54584
-149.716,-80.2405,2.505968
-149.578,-80.6073,2.476064
-149.457,-80.9644,2.486032
-149.321,-81.337,2.406288
-149.062,-82.0523,2.356448
-148.925,-82.4091,2.39632
-148.807,-82.7677,2.34648
-148.688,-83.1205,2.29664
-148.451,-83.7946,2.266736
-148.238,-84.1338,2.236832
-148.121,-84.4766,2.226864
-148,-84.8337,2.19696
-147.763,-85.4933,2.226864
-147.663,-85.8351,2.177024
-147.563,-86.1783,2.09728
-147.463,-86.5056,2.077344
-147.301,-87.1813,2.067376
-147.238,-87.5239,2.027504
-147.175,-87.8521,2.017536
-147.131,-88.1807,2.017536
-147.06,-88.8283,2.007568
-147.033,-89.1458,2.007568
-147.026,-89.4752,2.007568
-147.058,-89.7797,1.9976
-147.097,-90.4139,2.007568
-147.166,-90.7292,1.977664
-147.214,-91.034,2.027504
-147.261,-91.3388,1.987632
-147.378,-91.9186,1.957728
-147.447,-92.2037,1.977664
-147.571,-92.4685,1.967696
-147.637,-92.7434,1.987632
-147.847,-93.2779,1.977664
-147.953,-93.5581,1.9976
-148.059,-93.8023,1.9976
-148.183,-94.0526,2.017536
-148.41,-94.5457,2.037472
-148.536,-94.776,2.077344
-148.698,-94.9955,2.14712
-148.966,-95.4334,2.137152
-149.107,-95.6381,2.177024
-149.251,-95.8572,2.2468
-149.414,-96.0624,2.326544
-149.737,-96.4454,2.366416
-149.901,-96.6233,2.336512
-150.081,-96.7971,2.366416
-150.262,-96.9768,2.376384
-150.663,-97.2435,2.34648
-150.845,-97.3757,2.316576
-151.065,-97.4843,2.256768
-151.287,-97.5455,2.186992
-151.728,-97.6835,2.127184
-151.929,-97.7456,2.04744
-152.15,-97.7809,1.987632
-152.41,-97.8184,2.037472
-152.853,-97.8543,1.868016
-153.074,-97.8435,1.778304
-153.279,-97.838,1.778304
-153.462,-97.8422,1.768336
-153.965,-97.734,1.758368
-154.151,-97.6821,1.738432
-154.358,-97.6148,1.688592
-154.6,-97.5325,1.678624
-154.99,-97.3873,1.718496
-155.215,-97.2743,1.69856
-155.423,-97.1494,1.7484
-155.648,-97.0264,1.708528
-156.062,-96.7479,1.7484
-156.25,-96.6226,1.7484
-156.455,-96.4674,1.79824
-156.664,-96.3124,1.79824
-157.041,-95.9769,1.778304
-157.23,-95.8214,1.768336
-157.417,-95.6558,1.7484
-157.568,-95.5152,1.758368
-157.928,-95.1621,1.718496
-158.138,-94.9667,1.69856
-158.362,-94.7703,1.738432
-158.589,-94.5753,1.69856
-159.06,-94.1786,1.678624
-159.231,-93.9982,1.718496
-159.647,-93.606,1.788272
-161.064,-92.3973,1.718496
-161.309,-92.2171,1.678624
-161.552,-92.0225,1.688592
-161.763,-91.7956,1.69856
-162.121,-91.4841,1.69856
-162.29,-91.3181,1.718496
-162.535,-91.1336,1.7484
-162.781,-90.9377,1.79824
-163.289,-90.6051,1.838112
-163.55,-90.4095,1.818176
-163.76,-90.2444,1.868016
-164.04,-90.0449,1.868016
-164.547,-89.6965,1.94776
-164.85,-89.5018,1.967696
-165.149,-89.2926,1.987632
-165.524,-89.0751,2.007568
-166.052,-88.7257,1.9976
-166.313,-88.5416,2.017536
-166.539,-88.3769,2.057408
-166.82,-88.2076,2.067376
-167.42,-87.8613,2.077344
-167.722,-87.6825,2.09728
-168.002,-87.5146,2.09728
-168.283,-87.3511,2.127184
-168.867,-86.9886,2.107248
-169.165,-86.8255,2.107248
-169.467,-86.6567,2.157088
-169.765,-86.4778,2.167056
-170.365,-86.1573,2.216896
-170.666,-85.9943,2.206928
-170.93,-85.7987,2.286672
-171.211,-85.6453,2.266736
-171.718,-85.3128,2.306608
-171.999,-85.1593,2.366416
-172.296,-85.0379,2.406288
-172.579,-84.8989,2.486032
-173.121,-84.583,2.555808
-173.367,-84.4288,2.565776
-173.611,-84.2587,2.605648
-173.837,-84.0939,2.685392
-174.361,-83.7603,2.69536
-174.534,-83.5339,2.765136
-174.741,-83.3371,2.785072
-174.912,-83.125,2.814976
-175.31,-82.7742,2.765136
-175.463,-82.5603,2.824944
-175.633,-82.4043,2.84488
-175.785,-82.2379,2.765136
-176.072,-81.8385,2.785072
-176.186,-81.6251,2.7452
-176.283,-81.4258,2.765136
-176.458,-81.0282,2.715296
-176.519,-80.7978,2.715296
-176.561,-80.5728,2.725264
-176.605,-80.3421,2.715296
-176.69,-79.8704,2.69536
-176.675,-79.6383,2.675424
-176.7,-79.4388,2.625584
-176.722,-79.2479,2.575744
-176.676,-78.8453,2.605648
-176.625,-78.6599,2.565776
-176.556,-78.441,2.525904
-176.54,-78.2967,2.54584
-176.363,-77.8868,2.565776
-176.346,-77.8044,2.505968
-176.258,-77.6685,2.476064
-176.151,-77.5106,2.44616
-175.935,-77.2179,2.486032
-175.733,-77.0852,2.486032
-175.59,-76.9481,2.466096
-175.444,-76.8311,2.476064
-175.135,-76.6083,2.486032
-174.952,-76.5063,2.486032
-174.804,-76.4151,2.525904
-174.621,-76.3232,2.615616
-174.255,-76.1408,2.59568
-174.055,-76.0686,2.605648
-173.78,-75.9602,2.655488
-173.576,-75.8836,2.755168
-173.155,-75.7446,2.685392
-172.935,-75.6835,2.715296
-172.714,-75.6166,2.785072
-172.531,-75.5405,2.814976
-172.051,-75.4001,2.765136
-171.795,-75.3382,2.765136
-171.554,-75.2766,2.834912
-171.298,-75.2133,2.864816
-170.781,-75.0836,2.805008
-170.507,-75.0213,2.814976
-170.231,-74.9431,2.89472
-169.97,-74.9214,2.785072
-169.42,-74.7808,2.805008
-169.144,-74.717,2.834912
-168.868,-74.6388,2.834912
-168.592,-74.5765,2.834912
-168.059,-74.4205,2.834912
-167.783,-74.3567,2.824944
-167.47,-74.2777,2.805008
-167.174,-74.1832,2.834912
-166.548,-74.0108,2.814976
-166.256,-73.9164,2.824944
-165.944,-73.8273,2.84488
-165.336,-73.612,2.854848
-164.969,-73.4598,2.824944
-164.64,-73.3488,2.884752
-164.327,-73.2294,2.884752
-163.687,-72.9674,2.884752
-163.375,-72.8467,2.904688
-163.063,-72.7216,2.904688
-162.733,-72.5702,2.904688
-162.055,-72.2973,2.904688
-161.723,-72.1617,2.964496
-161.395,-72.0103,2.904688
-161.065,-71.8431,2.924624
-160.406,-71.5404,2.954528
-160.057,-71.3627,2.964496
-159.729,-71.1955,2.984432
-159.381,-71.0279,2.954528
-158.704,-70.6988,2.954528
-158.225,-70.5124,2.934592
-157.898,-70.3352,2.94456
-157.569,-70.1521,2.954528
-156.892,-69.7929,2.954528
-156.561,-69.5997,2.984432
-156.213,-69.4321,3.024304
-155.867,-69.2645,3.014336
-155.153,-68.9188,3.064176
-154.803,-68.7828,3.074144
-154.438,-68.6306,3.004368
-154.071,-68.4784,3.074144
-153.318,-68.1577,3.064176
-152.934,-68.0195,3.114016
-152.566,-67.8673,3.024304
-151.391,-67.4248,3.04424
-151.008,-67.2708,3.024304
-150.604,-67.1335,3.024304
-150.2,-66.9647,3.004368
-149.393,-66.6586,3.024304
-148.989,-66.5055,3.024304
-148.586,-66.3525,2.984432
-148.199,-66.184,3.04424
-147.392,-65.8621,2.984432
-146.989,-65.6831,3.004368
-146.606,-65.4888,2.974464
-146.22,-65.3045,3.014336
-145.434,-64.9269,3.004368
-145.069,-64.733,3.084112
-144.683,-64.5242,3.064176
-143.934,-64.1,3.014336
-143.551,-63.8913,3.104048
-143.186,-63.6815,3.133952
-142.8,-63.4728,3.024304
-142.089,-63.0235,3.024304
-141.724,-62.7993,3.064176
-141.36,-62.5752,3.034272
-141.033,-62.326,3.064176
-140.284,-61.8773,3.064176
-139.919,-61.6517,3.054208
-139.554,-61.4434,3.054208
-139.244,-61.2205,3.064176
-138.495,-60.7963,3.09408
-138.109,-60.6019,3.04424
-137.726,-60.3932,3.084112
-137.34,-60.1945,3.064176
-136.592,-59.8221,3.084112
-136.189,-59.623,3.104048
-135.803,-59.4444,3.114016
-135.399,-59.2756,3.084112
-134.593,-58.9277,3.114016
-134.21,-58.7435,3.153888
-133.807,-58.5746,3.123984
-133.404,-58.3957,3.114016
-132.578,-58.0014,3.133952
-132.175,-57.8181,3.163856
-131.772,-57.6234,3.14392
-131.389,-57.4449,3.133952
-130.601,-57.0356,3.14392
-130.219,-56.8269,3.163856
-129.832,-56.6426,3.153888
-129.43,-56.4334,3.173824
-128.662,-56.0289,3.203728
-128.222,-55.8189,3.183792
-127.84,-55.6203,3.19376
-127.454,-55.4101,3.19376
-126.704,-55.0074,3.233632
-126.339,-54.8092,3.223664
-125.956,-54.6149,3.203728
-125.571,-54.4047,3.213696
-124.802,-54.0116,3.213696
-124.419,-53.8591,3.203728
-124.034,-53.6647,3.183792
-123.632,-53.4656,3.223664
-122.843,-53.088,3.203728
-122.44,-52.909,3.223664
-122.053,-52.7147,3.183792
-121.652,-52.53,3.213696
-120.846,-52.152,3.173824
-120.423,-51.9726,3.213696
-120.02,-51.7879,3.19376
-119.617,-51.5946,3.153888
-118.832,-51.2156,3.173824
-118.429,-51.0165,3.183792
-117.972,-50.7802,3.173824
-117.187,-50.371,3.213696
-116.784,-50.192,3.173824
-116.361,-49.9767,3.173824
-115.975,-49.7823,3.173824
-115.17,-49.3784,3.183792
-114.787,-49.1783,3.173824
-114.385,-48.9533,3.183792
-113.945,-48.7995,3.19376
-113.194,-48.3406,3.183792
-112.812,-48.1305,3.183792
-112.41,-47.9156,3.173824
-112.08,-47.7081,3.163856
-111.295,-47.273,3.173824
-110.893,-47.0624,3.163856
-110.549,-46.8229,3.163856
-110.143,-46.5978,3.123984
-109.394,-46.1649,3.104048
-109.029,-45.925,3.09408
-108.668,-45.6894,3.074144
-108.283,-45.449,3.09408
-107.514,-44.984,3.074144
-107.147,-44.8476,3.074144
-106.765,-44.6231,3.09408
-106.437,-44.3422,3.09408
-105.631,-43.9383,3.133952
-105.267,-43.6983,3.183792
-104.902,-43.4425,3.203728
-104.594,-43.1779,3.273504
-103.866,-42.6995,3.2436
-103.501,-42.4897,3.29344
-103.136,-42.2555,3.313376
-102.754,-42.0152,3.29344
-102.023,-41.5352,3.283472
-101.62,-41.3404,3.263536
-101.255,-41.1321,3.303408
-100.873,-40.9076,3.353248
-100.009,-40.5585,3.323344
-99.606,-40.3738,3.303408
-99.221,-40.1492,3.283472
-98.818,-39.9703,3.323344
-98.012,-39.6023,3.313376
-97.723,-39.3382,3.283472
-97.337,-39.128,3.29344
-96.955,-38.9351,3.323344
-96.166,-38.5416,3.313376
-95.746,-38.3724,3.313376
-95.475,-38.1086,3.353248
-95.035,-37.9231,3.303408
-94.248,-37.5038,3.34328
-93.864,-37.3109,3.19376
-93.461,-37.142,3.313376
-92.787,-36.6216,3.303408
-92.48,-36.3009,3.313376
-92.132,-36.0455,3.303408
-91.655,-35.9627,3.353248
-90.718,-35.6695,3.34328
-90.295,-35.4585,3.323344
-89.929,-35.2502,3.363216
-89.527,-35.0353,3.34328
-88.76,-34.6006,3.333312
-88.357,-34.4058,3.34328
-87.956,-34.1247,3.39312
-87.553,-33.9299,3.34328
-86.769,-33.5064,3.44296
-86.383,-33.2961,3.313376
-86.001,-33.0716,3.373184
-85.616,-32.847,3.313376
-84.832,-32.3961,3.403088
-84.45,-32.1874,3.333312
-84.064,-31.9628,3.383152
-83.697,-31.7372,3.39312
-82.951,-31.2885,3.383152
-82.569,-31.064,3.34328
-82.184,-30.8279,3.353248
-81.762,-30.5867,3.373184
-81.034,-30.1082,3.383152
-81.045,-29.609,3.39312
-80.34,-29.619,3.413056
-79.958,-29.4089,3.383152
-79.19,-28.9742,3.39312
-78.808,-28.7655,3.423024
-78.442,-28.5255,3.39312
-78.076,-28.3013,3.423024
-77.273,-27.8255,3.423024
-76.886,-27.6412,3.44296
-76.616,-27.3055,3.413056
-76.213,-27.1208,3.432992
-75.465,-26.734,3.432992
-75.081,-26.5353,3.432992
-74.678,-26.3564,3.423024
-74.256,-26.1713,3.403088
-73.45,-25.8235,3.432992
-73.064,-25.6248,3.462896
-72.66,-25.4616,3.432992
-71.854,-25.098,3.432992
-71.45,-24.9853,3.432992
-71.067,-24.8183,3.44296
-70.664,-24.6235,3.4928
-69.836,-24.3012,3.413056
-69.511,-24.052,3.452928
-69.121,-24.0115,3.462896
-68.682,-23.8735,3.452928
-67.837,-23.581,3.482832
-67.434,-23.4121,3.522704
-67.047,-23.2595,3.512736
-66.629,-23.0903,3.572544
-65.78,-22.8149,3.522704
-65.359,-22.6917,3.532672
-64.936,-22.5641,3.582512
-64.511,-22.4567,3.562576
-63.686,-22.1747,3.532672
-63.246,-22.0669,3.522704
-62.822,-21.9393,3.522704
-62.417,-21.802,3.572544
-61.553,-21.5666,3.562576
-61.091,-21.4684,3.54264
-60.67,-21.3294,3.552608
-60.247,-21.222,3.54264
-59.401,-20.9568,3.512736
-58.978,-20.8493,3.572544
-49.076,-17.599,3.622384
-48.65,-17.5174,3.632352
-48.23,-17.4101,3.632352
-47.805,-17.3127,3.64232
-46.901,-17.2045,3.662256
-46.458,-17.1384,3.662256
-46.053,-17.0414,3.662256
-45.165,-16.9236,3.612416
-44.743,-16.8579,3.632352
-44.299,-16.7759,3.622384
-43.857,-16.6623,3.64232
-42.99,-16.5406,3.602448
-42.513,-16.4578,3.612416
-42.087,-16.3662,3.612416
-41.626,-16.2824,3.562576
-40.744,-16.1185,3.59248
-40.302,-16.0222,3.482832
-39.84,-15.9542,3.472864
-39.399,-15.8421,3.452928
-38.496,-15.6519,3.44296
-38.071,-15.5386,3.403088
-37.669,-15.3856,3.34328
-37.245,-15.248,3.373184
-36.457,-14.9726,3.29344
-36.09,-14.7584,3.39312
-35.678,-14.3317,3.452928
-35.275,-14.1528,3.34328
-34.615,-13.6745,3.39312
-34.29,-13.4973,3.383152
-33.959,-13.2998,3.413056
-33.629,-13.0909,3.413056
-33.011,-12.6753,3.512736
-32.722,-12.3651,3.602448
-32.45,-12.1028,3.552608
-32.105,-11.7496,3.622384
-31.507,-11.2309,3.652288
-31.2,-10.9202,3.652288
-30.949,-10.6425,3.732032
-30.693,-10.323,3.801808
-30.138,-9.5894,3.821744
-29.864,-9.4076,3.851648
-29.652,-8.9868,3.871584
-29.418,-8.6203,3.921424
-28.932,-7.9918,3.921424
-28.739,-7.6276,3.931392
-28.541,-7.2777,3.921424
-28.613,-6.6317,3.931392
-28.088,-6.1304,3.94136
-27.927,-5.7814,3.961296
-27.827,-5.3631,3.961296
-27.67,-5.0401,3.981232
-27.46,-4.33,4.051008
-27.397,-3.927,4.051008
-27.291,-3.6109,4.021104
-27.341,-3.1183,4.070944
-27.23,-2.3688,4.060976
-27.161,-2.0074,4.080912
-27.114,-1.6307,4.110816
-27,-0.9128,4.100848
-26.954,-0.5202,4.100848
-26.89,-0.133,4.120784
-26.825,0.2758,4.09088
-26.768,1.0961,4.130752
-26.705,1.499,4.14072
-26.657,1.9319,4.150688
-26.612,2.3806,4.120784
-26.486,3.2586,4.150688
-26.42,3.7077,4.19056
-26.337,4.1428,4.180592
-26.294,4.6317,4.220464
-26.206,5.6427,4.180592
-26.143,6.1032,4.180592
-26.004,6.5123,4.160656
-25.922,6.9718,4.180592
-25.833,8.0404,4.210496
-25.75,8.4741,4.160656
-25.725,9.0043,4.150688
-25.701,9.51,4.170624
-25.521,10.4669,4.19056
-25.437,10.9107,4.180592
-25.392,11.4054,4.19056
-25.348,11.9059,4.19056
-25.316,13.0192,4.180592
-25.272,13.534,4.220464
-25.247,14.0557,4.200528
-25.206,14.5603,4.250368
-25.115,15.5411,4.2404
-25.09,16.0613,4.19056
-24.988,16.5213,4.19056
-24.943,17.0275,4.210496
-24.836,18.0073,4.19056
-24.755,18.4985,4.200528
-24.714,19.0032,4.260336
-24.668,19.4936,4.280272
-24.636,20.545,4.250368
-24.59,21.034,4.260336
-24.545,21.5244,4.330112
-24.503,22.0306,4.310176
-24.45,23.0407,4.250368
-24.445,23.5604,4.34008
-24.4,24.0494,4.34008
-24.354,24.5398,4.310176
-24.322,25.5596,4.369984
-24.296,26.0654,4.34008
-24.252,26.5701,4.379952
-24.247,27.0755,4.409856
-24.213,28.0694,4.419824
-24.187,28.5593,4.429792
-24.142,29.008,4.4896
-24.133,29.522,4.559376
-24.103,30.5475,4.619184
-24.079,31.0374,4.569344
-24.07,31.5572,4.629152
-23.979,32.538,4.678992
-23.992,33.0977,4.718864
-23.966,33.6034,4.758736
-23.961,34.1188,4.768704
-23.945,35.1426,4.858416
-23.978,35.6873,4.918224
-23.99,36.2326,4.93816
-23.982,36.7682,5.067744
-23.989,37.8029,5.147488
-24,38.3079,5.257136
-24.012,38.8531,5.416624
-24.023,39.3307,5.526272
-24.009,40.3357,5.615984
-24.02,40.8392,5.655856
-24.05,41.3999,5.63592
-24.044,41.8894,5.655856
-24.067,42.8979,5.625952
-24.078,43.4172,5.665824
-24.071,43.8909,5.606016
-24.118,44.4512,5.68576
-24.162,45.4851,5.7356
-24.173,45.9886,5.655856
-24.185,46.508,5.68576
-24.214,47.0384,5.655856
-24.277,48.1021,5.615984
-24.325,48.6048,5.615984
-24.353,49.1252,5.58608
-24.385,49.6383,5.63592
-24.444,50.7021,5.566144
-24.493,51.2221,5.546208
-24.545,51.7247,5.566144
-24.574,52.2436,5.466464
-24.632,53.2772,5.476432
-24.681,53.7957,5.53624
-24.731,54.3098,5.346848
-24.797,54.828,5.257136
-24.911,55.8185,5.247168
-24.962,56.3226,5.217264
-25.01,56.8368,5.167424
-25.058,57.3236,5.107616
-25.174,58.3458,5.097648
-25.257,58.8477,5.017904
-25.306,59.3619,4.988
-25.373,59.8656,5.067744
-25.488,60.8864,4.988
-25.65,61.4282,4.93816
-25.697,61.9324,4.878352
-25.797,62.9391,4.848448
-25.844,63.426,4.858416
-25.856,63.9727,4.798608
-25.905,64.4912,4.778672
-25.983,65.5243,4.778672
-25.956,66.0287,4.748768
-26.023,66.5468,4.768704
-26.055,67.0613,4.68896
-26.15,68.084,4.698928
-26.22,68.6121,4.748768
-26.25,69.131,4.748768
-26.278,69.65,4.7388
-26.358,70.637,4.78864
-26.39,71.1559,4.808576
-26.453,71.6439,4.988
-26.505,72.1465,5.03784
-26.563,73.17,4.88832
-26.575,73.685,4.918224
-26.64,74.2189,4.928192
-26.672,74.7321,4.948128
-26.751,75.7709,4.88832
-26.8,76.2837,4.83848
-26.883,76.787,4.798608
-26.915,77.3059,4.758736
-26.973,78.3136,4.718864
-27.005,78.8281,4.698928
-27.033,79.3313,4.669024
-27.119,79.7611,4.63912
-27.216,80.7938,4.599248
-27.246,81.2984,4.58928
-27.274,81.8015,4.599248
-27.323,82.3358,4.58928
-27.402,83.3848,4.599248
-27.451,83.8874,4.599248
-27.501,84.4016,4.529472
-27.529,84.9205,4.519504
-27.572,85.9286,4.519504
-27.621,86.4427,4.549408
-27.651,86.9617,4.499568
-27.68,87.4806,4.499568
-27.759,88.4576,4.509536
-27.791,88.9707,4.4896
-27.817,89.4897,4.509536
-27.866,89.9938,4.499568
-27.909,90.986,4.479632
-27.957,91.4901,4.499568
-27.987,92.0033,4.459696
-28.047,93.0268,4.549408
-28.037,93.5005,4.459696
-28.069,94.0194,4.409856
-28.081,94.5243,4.43976
-28.159,95.5416,4.449728
-28.171,96.0451,4.409856
-28.218,96.5075,4.409856
-28.246,96.9963,4.429792
-28.289,98.0144,4.369984
-28.319,98.5333,4.409856
-28.347,99.0379,4.38992
-28.379,99.5409,4.38992
-28.439,100.5586,4.38992
-28.486,101.0772,4.379952
-28.497,101.5922,4.419824
-28.529,102.1111,4.360016
-28.569,103.1451,4.360016
-28.622,103.6793,4.38992
-28.634,104.1986,4.369984
-28.662,104.7133,4.360016
-28.721,105.7512,4.38992
-28.79,106.2649,4.350048
-28.82,106.768,4.330112
-28.831,107.2571,4.419824
-28.908,108.2946,4.399888
-28.958,108.8087,4.320144
-29.006,109.297,4.369984
-29.034,109.816,4.350048
-29.133,110.8069,4.360016
-29.182,111.3369,4.38992
-29.228,111.8138,4.379952
-29.26,112.3283,4.379952
-29.34,113.3355,4.449728
-29.368,113.8387,4.369984
-29.414,114.3572,4.459696
-29.446,114.8718,4.429792
-29.486,115.8799,4.409856
-29.518,116.3987,4.379952
-29.548,116.9133,4.360016
-29.597,117.4318,4.399888
-29.637,118.4658,4.419824
-29.668,118.9689,4.38992
-29.698,119.4734,4.399888
-29.657,120.0918,4.449728
-29.736,121.1293,4.459696
-29.763,121.6281,4.429792
-29.812,122.1466,4.469664
-29.844,122.6669,4.529472
-29.867,123.6595,4.459696
-29.913,124.1623,4.459696
-29.945,124.661,4.43976
-29.973,125.18,4.449728
-30.052,126.2289,4.459696
-30.101,126.7316,4.449728
-30.133,127.2778,4.509536
-30.212,128.3152,4.4896
-30.223,128.8187,4.449728
-30.272,129.3329,4.4896
-30.301,129.8677,4.469664
-30.344,130.8858,4.459696
-30.356,131.4051,4.479632
-30.386,131.9197,4.579312
-30.397,132.4232,4.4896
-30.42,133.4317,4.4896
-30.431,133.9367,4.629152
-30.443,134.456,4.499568
-30.455,134.971,4.479632
-30.461,136.0662,4.509536
-30.452,136.5817,4.519504
-30.464,137.101,4.509536
-30.476,137.6204,4.529472
-30.482,138.6551,4.529472
-30.511,139.1755,4.499568
-30.505,139.6895,4.499568
-30.517,140.2088,4.509536
-30.52,141.2336,4.499568
-30.531,141.7328,4.549408
-30.526,142.2525,4.529472
-30.538,142.7574,4.53944
-30.542,143.7807,4.519504
-30.571,144.2392,4.519504
-30.564,144.7431,4.53944
-30.559,145.2485,4.529472
-30.541,146.2679,4.529472
-30.536,146.7876,4.519504
-30.548,147.317,4.569344
-30.539,147.8368,4.53944
-30.548,148.8715,4.519504
-30.539,149.3913,4.549408
-30.514,149.9273,4.579312
-30.488,150.4273,4.499568
-30.456,151.4529,4.519504
-30.447,151.9727,4.559376
-30.458,152.4302,4.499568
-30.453,152.9513,4.479632
-30.4,153.9716,4.479632
-30.376,154.4759,4.519504
-30.329,154.9505,4.549408
-30.306,155.4706,4.499568
-30.255,156.4965,4.519504
-30.211,156.997,4.4896
-30.185,157.5172,4.459696
-30.059,158.4829,4.449728
-30.014,159.0036,4.43976
-29.97,159.5242,4.43976
-29.927,160.0303,4.409856
-29.837,161.0356,4.38992
-29.777,161.5565,4.38992
-29.733,162.0929,4.38992
-29.652,162.6101,4.379952
-29.546,163.6516,4.34008
-29.501,164.1838,4.300208
-29.457,164.7044,4.29024
-29.396,165.2095,4.250368
-29.307,166.2622,4.220464
-29.265,166.7626,4.230432
-29.221,167.2832,4.130752
-29.196,167.8034,4.100848
-29.143,168.8136,4.060976
-29.117,169.3294,4.051008
-29.114,169.8333,3.981232
-29.085,170.3694,3.94136
-29.071,171.4046,3.881552
-29.083,171.9095,3.801808
-29.077,172.3976,3.751968
-29.07,172.9029,3.672224
-29.112,173.9211,3.612416
-29.105,174.4566,3.582512
-29.097,174.9865,3.532672
-29.108,175.4915,3.482832
-29.151,176.4836,3.423024
-29.142,177.0034,3.373184
-29.154,177.5185,3.29344
-29.165,178.022,3.29344
-29.226,179.0137,3.19376
-29.198,179.4779,3.133952
-29.209,179.9929,3.074144
-29.295,180.4386,3.024304
-29.451,181.6139,2.94456
-29.482,182.0608,2.904688
-29.529,182.5794,2.84488
-29.577,183.0936,2.785072
-29.908,183.8072,2.785072
-30.011,184.2626,2.69536
-30.114,184.7396,2.655488
-30.143,185.2844,2.59568
-30.478,186.0383,2.655488
-30.436,186.6884,2.505968
-75.217,229.0873,3.881552
-76.169,229.4415,3.871584
-76.688,229.5752,3.921424
-77.155,229.7489,3.831712
-77.623,229.9298,3.911456
-78.573,230.2682,3.89152
-79.201,230.2224,3.961296
-79.508,230.607,3.931392
-80.081,230.6761,3.921424
-81.232,230.738,3.901488
-81.805,230.7827,3.851648
-82.183,231.1182,4.04104
-82.722,231.2499,4.080912
-83.818,231.4167,4.051008
-84.322,231.5896,4.070944
-84.486,232.235,4.021104
-85.274,231.9453,4.120784
-86.298,232.1381,4.120784
-86.549,232.6204,4.09088
-87.121,232.5211,4.300208
-87.637,232.4519,4.250368
-88.615,232.3119,4.379952
-89.007,232.3649,4.369984
-89.411,232.3098,4.469664
-89.888,232.1393,4.53944
-90.947,231.544,4.4896
-91.404,231.302,4.499568
-91.791,231.1651,4.609216
-92.229,230.8818,4.549408
-93.12,230.1982,4.579312
-93.52,229.8596,4.63912
-93.901,229.5876,4.619184
-94.209,229.2928,4.708896
-94.843,228.6351,4.649088
-95.132,228.309,4.63912
-95.364,227.9901,4.659056
-95.617,227.6504,4.68896
-96.062,226.9351,4.678992
-96.26,226.601,4.698928
-96.453,226.2369,4.678992
-96.613,225.8576,4.678992
-96.927,225.1035,4.669024
-97.067,224.7405,4.68896
-97.208,224.3458,4.678992
-97.255,223.9432,4.698928
-97.475,223.1351,4.718864
-97.579,222.7268,4.669024
-97.679,222.323,4.649088
-97.783,221.9032,4.649088
-97.97,221.08,4.669024
-98.069,220.6302,4.659056
-98.169,220.1803,4.669024
-98.35,219.255,4.708896
-98.453,218.795,4.818544
-98.535,218.3297,4.619184
-98.617,217.8687,4.609216
-98.745,217.0425,4.649088
-98.847,216.5666,4.669024
-98.908,216.0917,4.63912
-98.974,215.6167,4.63912
-99.137,214.6458,4.58928
-99.179,214.1554,4.649088
-99.244,213.6646,4.599248
-99.305,213.1753,4.63912
-99.377,212.179,4.599248
-99.438,211.6739,4.549408
-99.466,211.1681,4.579312
-99.508,210.6633,4.609216
-99.598,209.6581,4.58928
-99.605,209.1527,4.599248
-99.631,208.6484,4.599248
-99.636,208.143,4.569344
-99.634,207.1499,4.569344
-99.623,206.6608,4.529472
-99.591,206.1577,4.579312
-99.58,205.6528,4.63912
-99.521,204.6609,4.559376
-99.493,204.1722,4.659056
-99.463,203.6734,4.549408
-99.432,203.1804,4.58928
-99.393,202.1781,4.579312
-99.398,201.6569,4.559376
-99.386,201.1534,4.529472
-99.358,200.6488,4.609216
-99.315,199.6566,4.579312
-99.288,199.1693,4.559376
-99.276,198.6643,4.559376
-99.247,198.1656,4.569344
-99.225,197.183,4.569344
-99.214,196.6939,4.529472
-99.221,196.2057,4.529472
-99.192,195.717,4.619184
-99.149,194.755,4.519504
-99.122,194.2663,4.53944
-99.089,193.7316,4.509536
-99.078,193.2439,4.549408
-99.057,192.2815,4.559376
-99.046,191.7923,4.499568
-99.035,191.319,4.519504
-99.007,190.8303,4.53944
-99.022,189.8468,4.53944
-99.028,189.3588,4.509536
-99.056,188.8688,4.549408
-99.05,187.8642,4.509536
-99.096,187.3594,4.519504
-99.12,186.8695,4.559376
-99.146,186.3651,4.469664
-99.217,185.4107,4.509536
-99.263,184.9059,4.519504
-99.307,184.4155,4.509536
-99.405,183.9239,4.509536
-99.514,182.9283,4.469664
-99.577,182.4217,4.499568
-99.621,181.9327,4.459696
-99.684,181.4419,4.4896
-99.809,180.4301,4.479632
-99.871,179.9394,4.469664
-99.952,179.4381,4.449728
-100.018,178.9429,4.509536
-100.161,177.9508,4.449728
-100.165,177.4153,4.469664
-100.247,176.9255,4.429792
-100.328,176.4343,4.43976
-100.511,175.4212,4.459696
-100.572,174.9161,4.499568
-100.653,174.409,4.459696
-100.734,173.9077,4.43976
-100.916,172.8788,4.459696
-100.998,172.3732,4.399888
-101.095,171.8672,4.419824
-101.176,171.3602,4.429792
-101.324,170.3536,4.419824
-101.401,169.8467,4.429792
-101.41,169.3269,4.38992
-101.471,168.8217,4.379952
-101.58,167.8146,4.449728
-101.642,167.2936,4.419824
-101.666,166.7879,4.419824
-101.711,166.2672,4.409856
-101.818,165.2458,4.409856
-101.841,164.7256,4.399888
-101.85,164.2202,4.399888
-101.894,163.7054,4.459696
-101.964,162.6948,4.399888
-101.989,162.1746,4.429792
-102.015,161.6688,4.409856
-102.037,161.0825,4.409856
-102.071,160.0728,4.43976
-102.08,159.5515,4.419824
-102.085,159.0476,4.53944
-102.093,158.548,4.449728
-102.086,157.5392,4.449728
-102.058,157.0202,4.399888
-102.028,156.5056,4.43976
-101.968,155.4979,4.459696
-101.92,154.9953,4.449728
-101.874,154.5069,4.449728
-101.842,154.0039,4.429792
-101.82,153.0256,4.419824
-101.772,152.5229,4.469664
-101.724,152.0346,4.479632
-101.693,151.5157,4.499568
-101.579,150.5237,4.479632
-101.531,150.0368,4.479632
-101.499,149.5223,4.509536
-101.452,149.0195,4.499568
-101.448,147.9948,4.479632
-101.397,147.4907,4.4896
-101.369,146.9876,4.509536
-101.338,146.4888,4.519504
-101.243,145.5079,4.509536
-101.212,145.0091,4.469664
-101.164,144.5208,4.479632
-101.138,144.0177,4.509536
-101.095,143.0399,4.519504
-101.047,142.5372,4.53944
-100.999,142.0489,4.519504
-100.949,141.5462,4.559376
-100.834,140.5398,4.58928
-100.786,140.0515,4.579312
-100.718,139.5334,4.58928
-100.691,139.0447,4.599248
-100.596,138.0278,4.609216
-100.563,137.4931,4.58928
-100.515,136.9789,4.619184
-100.483,136.4758,4.63912
-100.404,135.4528,4.678992
-100.356,134.9501,4.678992
-100.328,134.4354,4.718864
-100.298,133.9467,4.7388
-100.218,132.9251,4.768704
-100.19,132.4364,4.768704
-100.195,131.9167,4.798608
-100.167,131.4121,4.848448
-100.089,130.4207,4.878352
-100.057,129.9219,4.928192
-99.956,129.5183,4.988
-99.928,129.0138,5.027872
-99.829,127.9969,5.077712
-99.801,127.4938,5.167424
-99.755,126.9896,5.2372
-99.702,126.487,5.267104
-99.626,125.4841,5.376752
-99.596,124.981,5.456496
-99.565,124.4765,5.745568
-99.469,123.4552,5.83528
-99.438,122.9507,5.855216
-99.409,122.4361,5.825312
-99.469,121.859,5.954896
-99.39,120.836,5.845248
-99.362,120.3371,5.855216
-99.314,119.8344,5.944928
-99.302,119.3295,5.994768
-99.24,118.3075,5.964864
-99.192,117.8034,6.014704
-99.164,117.2902,6.004736
-99.206,116.7998,5.944928
-99.111,115.7771,5.974832
-99.083,115.274,5.924992
-99.031,114.7599,5.915024
-98.983,114.2572,5.83528
-98.813,113.2924,5.815344
-98.765,112.794,5.795408
-98.718,112.2754,5.68576
-98.669,111.7728,5.765504
-98.554,110.7807,5.665824
-98.488,110.2785,5.615984
-98.419,109.7763,5.606016
-98.371,109.2721,5.606016
-98.239,108.2719,5.366784
-98.172,107.784,5.28704
-98.124,107.2799,5.177392
-98.057,106.7776,5.13752
-97.921,105.7458,5.057776
-97.873,105.2575,5.007936
-97.806,104.7552,4.93816
-97.741,104.2673,4.948128
-97.533,103.2328,4.88832
-97.466,102.7449,4.848448
-97.4,102.257,4.808576
-97.315,101.771,4.78864
-97.163,100.7798,4.798608
-97.059,100.2626,4.748768
-96.992,99.7747,4.68896
-96.905,99.2887,4.7388
-96.737,98.2979,4.7388
-96.597,97.8433,4.698928
-96.51,97.3559,4.669024
-96.427,96.8698,4.649088
-96.257,95.8949,4.659056
-96.096,95.379,4.669024
-96.012,94.8756,4.58928
-95.84,93.9022,4.63912
-95.736,93.3993,4.609216
-95.653,92.9132,4.549408
-95.584,92.4096,4.559376
-95.414,91.4203,4.549408
-95.333,91.0047,4.529472
-95.264,90.5025,4.519504
-95.181,90.015,4.529472
-95.028,89.0094,4.499568
-94.962,88.5215,4.519504
-94.914,88.0347,4.479632
-94.847,87.531,4.469664
-94.712,86.5409,4.43976
-94.628,86.0433,4.469664
-94.524,85.526,4.43976
-94.439,85.0386,4.43976
-94.324,84.048,4.419824
-94.237,83.5447,4.429792
-94.173,83.0726,4.350048
-94.159,82.4655,4.34008
-93.989,81.4762,4.350048
-93.94,80.9779,4.379952
-93.854,80.4861,4.330112
